# .PCD v0.7 - Point Cloud Data file format
VERSION 0.7
FIELDS x y z intensity
SIZE 4 4 4 4
TYPE F F F F
COUNT 1 1 1 1
WIDTH 1336
HEIGHT 1
VIEWPOINT 0 0 0 1 0 0 0
POINTS 1336
DATA ascii
-1.3989072 -1.9367816 0.55158001 34
-1.0130464 -1.4020435 -0.030192664 4
-1.4092958 -1.9490142 0.64445943 4
-1.6106565 -2.2136276 0.04778469 3
-2.188411 -3.0043631 0.19479445 67
-2.1834705 -2.9942849 0.32421938 100
-2.1763844 -2.9801955 0.45311025 17
-2.1054962 -2.8799584 0.56504136 3
-1.4250367 -1.9470659 0.46900854 4
-0.44845888 -0.61229289 -0.039775331 2
-1.4216106 -1.9395423 0.55517924 23
-1.0121679 -1.3804231 -0.029878521 3
-1.4720117 -2.0061021 0.66671789 7
-2.2019794 -2.9845104 0.19437577 71
-2.2072563 -2.9916627 0.32526523 100
-2.1803157 -2.955148 0.45091662 17
-2.1156967 -2.8675649 0.56441563 3
-0.45296505 -0.61393803 -0.039984677 2
-1.0115105 -1.3709773 -0.029738901 3
-1.5850711 -2.1483676 0.7153759 11
-2.2019794 -2.9845104 0.19437577 71
-2.2096221 -2.9948695 0.32561383 100
-2.189744 -2.967927 0.45286649 14
-2.1180422 -2.8707442 0.56504136 3
-1.4628077 -1.9826547 0.47893062 3
-0.44822195 -0.60750937 -0.039565988 2
-1.4276969 -1.9350666 0.55517924 4
-2.2414691 -3.0380342 -0.065900289 1
-1.4497322 -1.9649326 0.65429455 4
-2.2045827 -2.9825878 0.19437577 71
-2.211431 -2.9885781 0.32526523 100
-2.1865003 -2.9505749 0.45091662 17
-2.1231968 -2.862016 0.56441563 3
-1.5041455 -2.0253334 0.49037915 19
-0.45510536 -0.61235321 -0.039984677 2
-1.0170057 -1.3669058 -0.029738901 3
-1.59443 -2.1414311 0.7153759 11
-2.2248335 -2.9675126 0.19437577 71
-2.2346339 -2.9762535 0.32561383 100
-2.2160747 -2.9483185 0.45286649 14
-2.1450036 -2.8506551 0.56504136 3
-1.4828029 -1.9677454 0.47893062 3
-0.45445377 -0.60286176 -0.039565988 2
-1.4482175 -1.919757 0.55517924 4
-1.0132705 -1.3422166 -0.029354947 4
-1.4715899 -1.9486167 0.65429455 4
-2.2746787 -2.995692 0.065655954 105
-2.2477508 -2.9602289 0.19479445 67
-2.2434754 -2.9545984 0.32456797 100
-1.7118577 -2.2544718 0.3475714 1
-1.7345384 -2.2843418 0.45428574 1
-1.4757578 -1.9435344 0.47435117 4
-0.45413986 -0.59809029 -0.039356641 2
-1.4565984 -1.9183019 0.55607903 4
-1.0254798 -1.35053 -0.029599281 4
-1.4720134 -1.9386029 0.65222406 4
-2.2456558 -2.9574697 0.064818241 33
-2.2501664 -2.9634101 0.19500379 64
-2.2531145 -2.9672928 0.32596248 100
-1.6650395 -2.1928134 0.33806559 5
-1.67242 -2.2025335 0.43801656 7
-1.4769452 -1.945098 0.47473282 4
-0.46863368 -0.61717826 -0.040612705 2
-1.4707401 -1.9369261 0.56147784 4
-1.0037125 -1.3218631 -0.028970996 4
-1.5093976 -1.9878372 0.66878843 3
-2.2757237 -2.9948986 0.065655954 105
-2.2503324 -2.958267 0.19479445 67
-2.2475984 -2.951463 0.32456797 100
-1.7165754 -2.2508817 0.3475714 1
-1.7405127 -2.279793 0.45428574 1
-1.481856 -1.9388889 0.47435117 4
-0.45622471 -0.59650153 -0.039356641 2
-1.4639534 -1.9126948 0.55607903 4
-1.0308926 -1.3464029 -0.029599281 4
-1.480458 -1.9321618 0.65222406 4
-2.2672741 -2.9409294 0.064818241 33
-2.273371 -2.9456468 0.19500379 64
-2.2778931 -2.9483137 0.32596248 100
-1.684872 -2.1776121 0.33806559 5
-1.6934854 -2.1863782 0.43801656 7
-1.496559 -1.9300479 0.47473282 4
-0.47507089 -0.6122371 -0.040612705 2
-1.4916129 -1.9208983 0.56147784 4
-1.018186 -1.3107471 -0.028970996 4
-1.5318511 -1.9705864 0.66878843 3
-1.4887753 -1.9048604 0.042199921 4
-2.296242 -2.937999 0.19542249 64
-2.3016856 -2.9449639 0.32700834 100
-1.6942711 -2.1677883 0.33782184 8
-1.7030089 -2.1789682 0.43801656 14
-0.45506671 -0.5822494 -0.03872861 2
-1.676445 -2.1449802 0.62851328 10
-1.0282277 -1.3155982 -0.029145518 4
-1.5560391 -1.990923 0.67707068 2
-1.4961636 -1.9143136 0.042409346 3
-2.296242 -2.937999 0.19542249 61
-2.3041396 -2.9481037 0.32735696 96
-1.7064953 -2.183429 0.34025922 8
-1.7188227 -2.1992016 0.44208387 14
-1.6998118 -2.1748776 0.53655493 14
-0.46490601 -0.59483856 -0.039565988 2
-1.6980456 -2.1726177 0.63661152 15
-1.017145 -1.3014182 -0.028831376 4
-1.5536597 -1.9878787 0.6760354 2
-1.4894402 -1.9043405 0.042199921 4
-2.298805 -2.9359944 0.19542249 64
-2.3057952 -2.9417477 0.32700834 100
-1.6988074 -2.1642354 0.33782184 8
-1.7087079 -2.1745021 0.43801656 14
-0.45709625 -0.58065742 -0.03872861 2
-1.6846689 -2.1385274 0.62851328 10
-1.0335003 -1.3114603 -0.029145518 4
-1.5647113 -1.9841146 0.67707068 2
-1.5101556 -1.9032952 0.042409346 3
-2.3192453 -2.9198747 0.19542249 61
-2.3287563 -2.9286973 0.32735696 96
-1.7262409 -2.1678517 0.34025922 8
-1.7398539 -2.1826012 0.44208387 14
-1.7217402 -2.1575596 0.53655493 14
-0.4711096 -0.58993751 -0.039565988 2
-1.7214555 -2.1541166 0.63661152 15
-1.0313932 -1.2901555 -0.028831376 4
-1.5761112 -1.9701254 0.6760354 2
-2.3395424 -2.9087651 0.19563182 57
-2.3450766 -2.9156458 0.32735696 81
-1.7318376 -2.1532025 0.33928427 8
-1.7382179 -2.1611354 0.43926802 13
-0.36961803 -0.45954803 -0.051596198 1
-1.732473 -2.1539927 0.53731817 15
-0.48067641 -0.59762746 -0.040194016 2
-1.7172221 -2.135031 0.6325624 10
-1.0302032 -1.280857 -0.028691756 5
-2.3470528 -2.918103 0.19625986 55
-2.3425791 -2.9125407 0.32700834 81
-1.7492553 -2.1748581 0.34269661 9
-1.7431703 -2.1672926 0.44051951 12
-1.7337031 -2.1555221 0.53769976 19
-0.4781729 -0.59451485 -0.039984677 2
-1.7184435 -2.1365497 0.63301229 12
-1.0302032 -1.280857 -0.028691756 4
-2.3395424 -2.9087651 0.19563182 57
-2.3450766 -2.9156458 0.32735696 81
-1.7318376 -2.1532025 0.33928427 8
-1.7382179 -2.1611354 0.43926802 13
-0.36961803 -0.45954803 -0.051596198 1
-1.732473 -2.1539927 0.53731817 15
-0.48067641 -0.59762746 -0.040194016 2
-1.7172221 -2.135031 0.6325624 10
-1.0302032 -1.280857 -0.028691756 5
-2.3470528 -2.918103 0.19625986 55
-2.3425791 -2.9125407 0.32700834 81
-1.7492553 -2.1748581 0.34269661 9
-1.7431703 -2.1672926 0.44051951 12
-1.7337031 -2.1555221 0.53769976 19
-0.4781729 -0.59451485 -0.039984677 2
-1.7184435 -2.1365497 0.63301229 12
-1.0302032 -1.280857 -0.028691756 4
-2.4154682 -2.9198012 0.066144623 105
-2.3896093 -2.8885434 0.1964692 63
-2.3901334 -2.8891766 0.32805422 81
-1.7740136 -2.1444154 0.34172165 9
-1.7728862 -2.1430526 0.44051951 12
-1.7582521 -2.1253631 0.53617334 19
-0.49396294 -0.59709895 -0.040612705 2
-1.7576753 -2.1246657 0.63661152 13
-1.0503144 -1.2696129 -0.028761568 4
-1.7449054 -2.1092296 0.73349321 51
-2.3976231 -2.8982301 0.065655954 100
-2.3921556 -2.8916211 0.19667853 60
-2.3901334 -2.8891766 0.32805422 81
-1.7714831 -2.1413565 0.34123421 9
-1.7829593 -2.1552289 0.44302243 12
-1.7632577 -2.1314137 0.53769976 18
-0.49141672 -0.59402114 -0.040403362 2
-1.7576753 -2.1246657 0.63661152 13
-1.0528637 -1.2726943 -0.028831376 4
-1.7473681 -2.1122065 0.73452848 38
-2.4164879 -2.9189575 0.066144623 105
-2.3921299 -2.8864565 0.1964692 63
-2.3941658 -2.8858361 0.32805422 81
-1.7785019 -2.1406946 0.34172165 9
-1.7784914 -2.1384032 0.44051951 12
-1.7649212 -2.1198282 0.53617334 19
-0.4960444 -0.59537095 -0.040612705 2
-1.7654514 -2.1182086 0.63661152 13
-1.0554029 -1.2653861 -0.028761568 4
-1.7540925 -2.1015956 0.73349321 51
-2.4183018 -2.8809984 0.065655954 100
-2.4142916 -2.8731649 0.19667853 60
-2.4142542 -2.8690515 0.32805422 81
-1.7904737 -2.1255031 0.34123421 9
-1.8031927 -2.138329 0.44302243 12
-1.7847434 -2.1134553 0.53769976 18
-0.49750766 -0.58892924 -0.040403362 2
-1.7801957 -2.1058323 0.63661152 13
-1.0667942 -1.2610406 -0.028831376 4
-1.7708524 -2.0925567 0.73452848 38
-2.4477224 -2.8770807 0.065935194 100
-2.4317982 -2.8583632 0.19667853 63
-2.4400706 -2.8680866 0.3294487 87
-1.8034124 -2.1197515 0.34172165 9
-1.8125063 -2.1304405 0.44302243 11
-1.8026556 -2.1188617 0.54075271 17
-0.49697202 -0.58414656 -0.040194016 2
-1.7817521 -2.0942917 0.63481188 12
-1.0586497 -1.2443489 -0.028517231 4
-1.7750736 -2.0864418 0.73401088 33
-2.455497 -2.886219 0.066144623 100
-2.436975 -2.8644481 0.19709724 57
-2.4426527 -2.8711216 0.32979733 87
-1.8085576 -2.1257992 0.34269661 9
-1.8125063 -2.1304405 0.44302243 10
-0.38214862 -0.44918182 -0.051596198 1
-1.8001114 -2.1158714 0.53998947 16
-0.49438366 -0.58110416 -0.039984677 2
-1.7868032 -2.1002288 0.63661152 13
-1.0443962 -1.2275951 -0.028133281 4
-1.7825844 -2.0952699 0.73711663 35
-2.4487264 -2.8762262 0.065935194 100
-2.4342914 -2.85624 0.19667853 63
-2.4440725 -2.864677 0.3294487 87
-1.8078477 -2.1159701 0.34172165 9
-1.8180772 -2.1256883 0.44302243 11
-1.8093028 -2.1131885 0.54075271 17
-0.49900794 -0.58240831 -0.040194016 2
-1.7897805 -2.0874348 0.63481188 12
-1.0636359 -1.2400894 -0.028517231 4
-1.7841604 -2.0786767 0.73401088 33
-2.4765875 -2.8681424 0.066144623 100
-2.4593964 -2.8452206 0.19709724 57
-2.466619 -2.8505583 0.32979733 87
-1.8277757 -2.109298 0.34269661 9
-1.8328729 -2.1129439 0.44302243 10
-0.3865982 -0.44535795 -0.051596198 1
-1.8214372 -2.0975413 0.53998947 16
-0.50044167 -0.57589531 -0.039984677 2
-1.8094245 -2.0807714 0.63661152 13
-1.0578309 -1.2160373 -0.028133281 4
-1.8062389 -2.0749133 0.73711663 35
-2.4981892 -2.8546636 0.066214427 100
-2.4793618 -2.8331497 0.19730657 67
-2.4825013 -2.8367372 0.32979733 92
-1.8406767 -2.1033285 0.34318411 8
-1.8433759 -2.1064131 0.44333532 9
-1.8398212 -2.1023512 0.54304242 16
-0.49455702 -0.5651269 -0.039356641 2
-1.8236529 -2.0838757 0.63931096 13
-1.0588002 -1.2098838 -0.028063469 4
-1.8091205 -2.0672696 0.73608136 32
-2.4929216 -2.8486445 0.066074811 100
-2.484623 -2.8391614 0.19772527 70
-2.4851255 -2.839736 0.33014596 81
-1.8485203 -2.1122916 0.34464651 8
-1.8576859 -2.1227651 0.4467769 10
-1.8230132 -2.0831447 0.53808141 14
-0.49981827 -0.57113892 -0.039775331 2
-1.8326364 -2.094141 0.64246029 11
-1.0667018 -1.2189127 -0.028272899 4
-1.8154817 -2.0745385 0.73866957 27
-2.4991853 -2.8537915 0.066214427 100
-2.4818327 -2.8309851 0.19730657 67
-2.48646 -2.8332679 0.32979733 92
-1.8450779 -2.0994687 0.34318411 8
-1.8488843 -2.1015799 0.44333532 9
-1.8464168 -2.0965607 0.54304242 16
-0.49652663 -0.56339717 -0.039356641 2
-1.8312784 -2.0771778 0.63931096 13
-1.0636485 -1.2056237 -0.028063469 4
-1.8181233 -2.0593562 0.73608136 32
-2.5132415 -2.8307333 0.066074811 100
-2.5063519 -2.819998 0.19772527 70
-2.5088279 -2.8188174 0.33014596 81
-1.8672485 -2.0957541 0.34464651 8
-1.8776095 -2.1051629 0.4467769 10
-1.844007 -2.064584 0.53808141 14
-0.50567299 -0.56596184 -0.039775331 2
-1.8548274 -2.0745113 0.64246029 11
-1.0800394 -1.2071105 -0.028272899 4
-1.8385407 -2.0541303 0.73866957 27
-2.5426605 -2.8258946 0.066354051 101
-2.5288754 -2.8105738 0.19814396 81
-2.5293729 -2.8111269 0.33084321 96
-1.8748124 -2.083653 0.34415907 8
-1.886777 -2.0969503 0.4467769 10
-1.8489351 -2.0548933 0.53731817 13
-0.5183326 -0.57607108 -0.040612705 2
-1.863942 -2.0715716 0.64336008 11
-1.078056 -1.1981437 -0.028133281 4
-1.8516648 -2.0579269 0.74177545 22
-2.5426605 -2.8258946 0.066354051 100
-2.5288754 -2.8105738 0.19814396 57
-2.5400343 -2.8229756 0.33223769 76
-1.8695014 -2.0777502 0.34318411 8
-1.8894194 -2.0998871 0.44740263 10
-1.8620666 -2.0694873 0.54113436 14
-0.52100438 -0.57904053 -0.040822048 2
-1.8691558 -2.0773661 0.64515966 11
-1.0887562 -1.2100358 -0.028412517 4
-1.8555413 -2.0622354 0.74332833 22
-2.5436475 -2.8250065 0.066354051 101
-2.5313277 -2.8083653 0.19814396 81
-2.5332959 -2.8075919 0.33084321 96
-1.8791726 -2.0797215 0.34415907 8
-1.8922606 -2.0920036 0.4467769 10
-1.8557394 -2.0487504 0.53731817 13
-0.52034032 -0.57425827 -0.040612705 2
-1.8718826 -2.0643992 0.64336008 11
-1.0830656 -1.1936171 -0.028133281 4
-1.8606265 -2.0498278 0.74177545 22
-2.563307 -2.8071799 0.066354051 100
-2.5513589 -2.7901797 0.19814396 57
-2.5640841 -2.8011496 0.33223769 76
-1.8882815 -2.0606976 0.34318411 8
-1.9098531 -2.0813198 0.44740263 10
-1.8832781 -2.0502033 0.54113436 14
-0.5271396 -0.57346094 -0.040822048 2
-1.8915253 -2.0570188 0.64515966 11
-1.1022043 -1.197799 -0.028412517 4
-1.8791735 -2.0407243 0.74332833 22
-2.4923763 -2.6924644 0.19228233 12
-2.493067 -2.6932104 0.32108176 12
-1.9067781 -2.0598543 0.34464651 8
-1.9162326 -2.0700676 0.4467769 11
-1.8938037 -2.0458384 0.54189759 14
-0.51557046 -0.55696046 -0.039775331 2
-1.9062791 -2.0593152 0.6478591 10
-1.0894525 -1.1769137 -0.02799366 4
-1.895008 -2.0471392 0.74746948 20
-2.4519472 -2.6487896 0.06300319 3
-2.5100143 -2.7115183 0.19364306 13
-2.4862995 -2.6858997 0.32021019 14
-1.9148692 -2.0685949 0.34610897 8
-1.9189162 -2.0729668 0.44740263 10
-1.8991385 -2.0516012 0.54342401 14
-0.52371103 -0.56575459 -0.040403362 2
-1.9089267 -2.0621753 0.64875889 9
-1.0813019 -1.1681089 -0.027784232 5
-1.8818846 -2.0329623 0.742293 11
-2.4947248 -2.6902885 0.19228233 12
-2.4968247 -2.6897271 0.32108176 12
-1.9110885 -2.055856 0.34464651 8
-1.9216456 -2.0650439 0.4467769 11
-1.9002218 -2.0398786 0.54189759 14
-0.51751143 -0.55515754 -0.039775331 2
-1.9138141 -2.0523145 0.6478591 10
-1.0941684 -1.1725307 -0.02799366 4
-1.9039222 -2.0388513 0.74746948 20
-2.4708388 -2.631176 0.06300319 3
-2.5307629 -2.6921628 0.19364306 13
-2.508714 -2.6649761 0.32021019 14
-1.9332064 -2.0514684 0.34610897 8
-1.9383683 -2.0547895 0.44740263 10
-1.9198086 -2.0322719 0.54342401 14
-0.52950889 -0.56033188 -0.040403362 2
-1.9307728 -2.0417359 0.64875889 9
-1.0940804 -1.156149 -0.027784232 5
-1.9044753 -2.0118151 0.742293 11
-2.4165521 -2.5394037 0.061188139 3
-1.9404716 -2.0391204 0.3456215 8
-1.9554861 -2.0548983 0.44927984 11
-1.9218314 -2.0195327 0.54189759 15
-0.52044702 -0.54690534 -0.039565988 2
-1.9479253 -2.0469532 0.65235811 9
-1.0780056 -1.1328087 -0.027295565 4
-1.9217216 -2.0194173 0.74695182 7
-2.3310835 -2.4495902 0.05902404 3
-2.6366563 -2.7706976 0.20044672 69
-2.6370952 -2.7711589 0.33467805 99
-1.9432086 -2.0419965 0.34610897 8
-1.9636567 -2.0634842 0.45115703 12
-1.9272449 -2.0252213 0.54342401 14
-0.52320075 -0.54979903 -0.039775331 2
-1.9546423 -2.0540116 0.65460759 8
-1.0917907 -1.1472946 -0.027644612 4
-1.9257169 -2.0236156 0.7485047 3
-2.4165521 -2.5394037 0.061188139 3
-2.6109991 -2.743736 0.33136615 99
-1.9404716 -2.0391204 0.3456215 8
-1.9554861 -2.0548983 0.44927984 11
-1.9218314 -2.0195327 0.54189759 15
-0.52044702 -0.54690534 -0.039565988 2
-1.9479253 -2.0469532 0.65235811 9
-1.0780056 -1.1328087 -0.027295565 4
-1.9217216 -2.0194173 0.74695182 7
-2.3310835 -2.4495902 0.05902404 3
-2.6366563 -2.7706976 0.20044672 69
-2.6370952 -2.7711589 0.33467805 99
-1.9432086 -2.0419965 0.34610897 8
-1.9636567 -2.0634842 0.45115703 12
-1.9272449 -2.0252213 0.54342401 14
-0.52320075 -0.54979903 -0.039775331 2
-1.9546423 -2.0540116 0.65460759 8
-1.0917907 -1.1472946 -0.027644612 4
-1.9257169 -2.0236156 0.7485047 3
-2.3087013 -2.360039 0.057627846 3
-2.674607 -2.7340813 0.20044672 67
-2.662513 -2.7217183 0.33310926 54
-1.9795071 -2.0235248 0.3475714 8
-2.0029714 -2.0475109 0.45366001 4
-1.9604763 -2.0040705 0.54495054 14
-0.52793807 -0.53967768 -0.039565988 2
-1.9800509 -2.0240805 0.6537078 8
-1.1103021 -1.1349914 -0.027714422 5
-1.9615401 -2.0051582 0.75161052 2
-2.2751405 -2.325732 0.056790132 3
-2.674607 -2.7340813 0.20044672 52
-2.6652994 -2.7245667 0.33345786 49
-1.9822834 -2.0263627 0.34805888 8
-1.9850136 -2.0291536 0.44959271 9
-1.9687134 -2.012491 0.5472402 14
-0.53911138 -0.55109936 -0.040403362 2
-1.9882274 -2.0324388 0.65640724 8
-1.1047087 -1.1292737 -0.027574802 4
-1.9912604 -2.0355394 0.76299858 1
-2.3095248 -2.3592329 0.057627846 3
-2.6769915 -2.7317462 0.20044672 67
-2.6663101 -2.7179983 0.33310926 54
-1.9837403 -2.0193746 0.3475714 8
-2.0083251 -2.0422597 0.45366001 4
-1.9667625 -1.9979016 0.54495054 14
-0.52981853 -0.5378316 -0.039565988 2
-1.9878082 -2.0164628 0.6537078 8
-1.1148492 -1.1305252 -0.027714422 5
-1.9702705 -1.9965802 0.75161052 2
-2.2921276 -2.3089919 0.056790132 3
-2.6959977 -2.7129908 0.20044672 52
-2.6880307 -2.7021425 0.33345786 49
-2.000592 -2.0082889 0.34805888 8
-2.0044 -2.010006 0.44959271 9
-1.9889846 -1.9924588 0.5472402 14
-0.54485279 -0.54542363 -0.040403362 2
-2.0101032 -2.0108058 0.65640724 8
-1.1170586 -1.1170586 -0.027574802 4
-2.0142241 -2.0128186 0.76299858 1
-2.2449911 -2.2317078 0.055254318 3
-2.7323508 -2.7161841 0.20191215 60
-2.7115591 -2.6955154 0.33450374 45
-2.0131984 -2.0012867 0.34854636 9
-2.0159535 -2.0040257 0.45021844 9
-1.9966204 -1.9848069 0.5472402 14
-0.54108757 -0.53788614 -0.039984677 2
-2.021939 -2.0099759 0.65820682 8
-1.1019317 -1.0954119 -0.027121039 4
-2.1400535 -2.1273913 0.80855072 1
-2.199609 -2.1865945 0.054137368 3
-2.7380164 -2.7218163 0.20233083 60
-2.7087326 -2.6927059 0.33415511 57
-2.0188296 -2.0068848 0.34952128 6
-2.0257604 -2.0137744 0.45240852 7
-0.41824982 -0.41577515 -0.051596198 1
-2.0133288 -2.0014164 0.55181968 9
-0.54392046 -0.54070222 -0.040194016 2
-2.0329955 -2.0209668 0.66180605 8
-1.1203682 -1.1137393 -0.027574802 5
-2.2770607 -2.263588 0.86031455 1
-2.2457697 -2.2309241 0.055254318 3
-2.73472 -2.7137988 0.20191215 60
-2.7153196 -2.6917269 0.33450374 45
-2.0173852 -1.9970663 0.34854636 9
-2.021193 -1.9987416 0.45021844 9
-2.0028458 -1.9785249 0.5472402 14
-0.54296172 -0.53599417 -0.039984677 2
-2.0292921 -2.002552 0.65820682 8
-1.1063198 -1.0909799 -0.027121039 4
-2.1493156 -2.1180334 0.80855072 1
-2.2151997 -2.1707985 0.054137368 3
-2.7588377 -2.7007098 0.20233083 60
-2.731195 -2.6699195 0.33415511 57
-2.0366125 -1.9888363 0.34952128 6
-2.0446486 -1.9945936 0.45240852 7
-0.42229345 -0.4116675 -0.051596198 1
-2.0334852 -1.9809338 0.55181968 9
-0.54945934 -0.5350728 -0.040194016 2
-2.0543957 -1.9992087 0.66180605 8
-1.1325464 -1.101353 -0.027574802 5
-2.3022022 -2.2380128 0.86031455 1
-2.1892977 -2.1171365 0.05316003 3
-2.7795906 -2.6879725 0.20264484 42
-2.7513301 -2.6606436 0.33485237 40
-2.0548697 -1.987139 0.35098374 1
-2.1868136 -2.1147339 0.4818182 3
-2.7520242 -2.6613147 0.74415511 6
-0.53840208 -0.52065581 -0.039251972 2
-2.1110973 -2.0415137 0.67800254 3
-1.1384923 -1.1009665 -0.027644612 5
-2.2802792 -2.2051189 0.84996176 1
-2.1174233 -2.0476308 0.051414788 3
-2.1404893 -2.0699368 0.36560807 1
-2.1498933 -2.0790305 0.47368363 3
-2.1000061 -2.0307879 0.56784761 2
-0.53696632 -0.51926738 -0.039147299 2
-2.0690715 -2.0008731 0.66450548 6
-1.1384923 -1.1009665 -0.027644612 5
-2.7704973 -2.6791792 1.032688 5
-2.1900365 -2.1163719 0.05316003 3
-2.7819352 -2.6855459 0.20264484 42
-2.7550421 -2.6567996 0.33485237 40
-2.0590272 -1.9828308 0.35098374 1
-2.1923425 -2.1090014 0.4818182 3
-2.7603714 -2.6526556 0.74415511 6
-0.54021627 -0.51877326 -0.039251972 2
-2.1185658 -2.0337622 0.67800254 3
-1.1429027 -1.0963874 -0.027644612 5
-2.2898791 -2.1951482 0.84996176 1
-2.1320214 -2.0324264 0.051414788 3
-2.1588295 -2.0508015 0.36560807 1
-2.1693923 -2.058676 0.47368363 3
-2.1204555 -2.0094264 0.56784761 2
-0.54228497 -0.5137105 -0.039147299 2
-2.090256 -1.9787319 0.66450548 6
-1.1505291 -1.0883818 -0.027644612 5
-2.8002501 -2.6480665 1.032688 5
-2.1352587 -2.0086505 0.051170457 22
-2.122474 -1.9966239 0.15271634 9
-2.1274574 -2.0013118 0.25554064 11
-2.1225574 -1.9967023 0.35780841 9
-2.1150465 -1.9896368 0.45991737 7
-0.55571282 -0.52276236 -0.039984677 2
-2.0808492 -1.9574671 0.65955657 5
-1.1419119 -1.0742033 -0.027365373 4
-2.831095 -2.6632278 1.0414879 1
-2.1833239 -2.0538657 0.052322313 37
-2.1326571 -2.0062032 0.15344904 10
-2.1216526 -1.995851 0.25484338 12
-2.1413538 -2.0143843 0.36097702 13
-2.1366286 -2.0099392 0.4646104 12
-2.1535463 -2.0258539 0.57471669 20
-0.56444126 -0.53097326 -0.040612705 2
-2.1021402 -1.9774957 0.66630507 6
-1.1564771 -1.0879048 -0.027714422 4
-2.8142095 -2.6473434 1.0352762 5
-2.1359596 -2.007905 0.051170457 22
-2.1242154 -1.994771 0.15271634 9
-2.1302497 -1.9983397 0.25554064 11
-2.1267345 -1.9922528 0.35780841 9
-2.1202478 -1.9840932 0.45991737 7
-2.1272604 -1.9878709 0.56593949 16
-0.55753416 -0.52081949 -0.039984677 2
-2.0883498 -1.9494628 0.65955657 5
-1.1464013 -1.0694109 -0.027365373 4
-2.8426883 -2.6508493 1.0414879 1
-2.1983204 -2.0378065 0.052322313 37
-2.1486945 -1.9890172 0.15344904 10
-2.1386428 -1.9776342 0.25484338 12
-2.1595473 -1.9948676 0.36097702 13
-2.1561708 -1.9889609 0.4646104 12
-2.1742926 -2.0035713 0.57471669 20
-0.5700621 -0.52493405 -0.040612705 2
-2.123415 -1.9546334 0.66630507 6
-1.1685565 -1.0749195 -0.027714422 4
-2.8445175 -2.6147513 1.0352762 5
-2.1693437 -1.9836622 0.051310074 15
-2.1711226 -1.9852889 0.15418173 9
-2.1496549 -1.9656588 0.25484338 10
-2.1681511 -1.9825718 0.36073327 11
-2.1619132 -1.9768677 0.46398467 7
-2.1645834 -1.9793096 0.57013732 13
-0.57189101 -0.52294093 -0.040612705 2
-2.1255705 -1.9436359 0.66495538 5
-1.1776437 -1.0768453 -0.02785404 5
-2.8599067 -2.6151178 1.0383821 5
-2.864419 -2.6192439 0.067750245 5
-2.8727207 -2.6268349 0.20400558 6
-2.8657167 -2.6204305 0.33973309 7
-2.850826 -2.6068141 0.47431552 6
-2.8762338 -2.6300473 0.61729044 4
-2.1602368 -1.9753349 0.56899244 2
-0.56304735 -0.51485425 -0.039984677 2
-2.1442664 -1.9607315 0.67080408 10
-1.1717407 -1.0714475 -0.027714422 5
-2.8627582 -2.6177251 1.0394174 5
-2.1700358 -1.9829049 0.051310074 15
-2.1728544 -1.9833931 0.15418173 9
-2.1523979 -1.9626551 0.25484338 10
-2.1722984 -1.978027 0.36073327 11
-2.1670809 -1.9712014 0.46398467 7
-2.1707907 -1.9725001 0.57013732 13
-0.57371294 -0.5209415 -0.040612705 2
-2.1326807 -1.9358317 0.66495538 5
-1.181957 -1.0721092 -0.02785404 5
-2.87129 -2.6026142 1.0383821 5
-2.8830886 -2.5986795 0.067750245 5
-2.8928087 -2.6046968 0.20400558 6
-2.8875685 -2.5963311 0.33973309 7
-2.8739164 -2.5813358 0.47431552 6
-2.900893 -2.6028233 0.61729044 4
-2.1801221 -1.953366 0.56899244 2
-0.56831902 -0.50902921 -0.039984677 2
-2.1650198 -1.9377917 0.67080408 10
-1.1834509 -1.058499 -0.027714422 5
-2.8918195 -2.5855851 1.0394174 5
-2.9166961 -2.5941203 0.068134196 5
-2.9086654 -2.5869775 0.20400558 6
-2.9090173 -2.5872905 0.34060463 7
-2.8894632 -2.5698991 0.474803 6
-2.9328871 -2.6085205 0.62167066 4
-0.38707498 -0.34426591 -0.045320988 1
-2.9134216 -2.5912077 0.75789338 5
-0.5730772 -0.5096969 -0.040194016 2
-2.1579912 -1.9193252 0.66675496 6
-1.2043326 -1.0711378 -0.028133281 4
-2.9029088 -2.5818577 1.0409703 5
-2.922673 -2.599436 0.068273813 6
-2.9235892 -2.6002507 0.2050523 6
-2.9209275 -2.5978835 0.34199914 7
-2.9013295 -2.5804532 0.47675291 6
-2.9269829 -2.6032691 0.62041914 4
-0.44066998 -0.3919335 -0.051596198 1
-2.9280913 -2.604255 0.76170951 5
-0.58203155 -0.51766098 -0.040822048 2
-2.1609035 -1.9219154 0.66765475 6
-1.1804252 -1.0498744 -0.027574802 5
-2.9173439 -2.594696 1.0461466 5
-2.9166961 -2.5941203 0.068134196 5
-2.9086654 -2.5869775 0.20400558 6
-2.9090173 -2.5872905 0.34060463 7
-2.8894632 -2.5698991 0.474803 6
-2.9328871 -2.6085205 0.62167066 4
-0.38707498 -0.34426591 -0.045320988 1
-2.9134216 -2.5912077 0.75789338 5
-0.5730772 -0.5096969 -0.040194016 2
-2.1579912 -1.9193252 0.66675496 6
-1.2043326 -1.0711378 -0.028133281 4
-2.9029088 -2.5818577 1.0409703 5
-2.922673 -2.599436 0.068273813 6
-2.9235892 -2.6002507 0.2050523 6
-2.9209275 -2.5978835 0.34199914 7
-2.9013295 -2.5804532 0.47675291 6
-2.9269829 -2.6032691 0.62041914 4
-0.44066998 -0.3919335 -0.051596198 1
-2.9280913 -2.604255 0.76170951 5
-0.58203155 -0.51766098 -0.040822048 2
-2.1609035 -1.9219154 0.66765475 6
-1.1804252 -1.0498744 -0.027574802 5
-2.9173439 -2.594696 1.0461466 5
-2.9733593 -2.5719738 0.068622865 6
-2.962184 -2.5623071 0.20526163 6
-2.9444139 -2.5469358 0.34060463 7
-2.9516461 -2.5531917 0.47919029 6
-2.9715619 -2.5704188 0.62229639 4
-2.9666896 -2.5662045 0.76247281 5
-0.58307141 -0.50436026 -0.040403362 2
-2.9653909 -2.5650811 0.9052031 4
-1.1947885 -1.0334992 -0.027574802 5
-2.9543025 -2.5554895 1.0466642 5
-2.9809215 -2.5785151 0.068797387 8
-2.9863529 -2.5832131 0.20693639 6
-2.9474277 -2.5495427 0.34095326 7
-2.9576516 -2.5583863 0.48016527 6
-2.9775379 -2.5755882 0.62354785 4
-2.9726291 -2.571342 0.76399928 5
-0.58307141 -0.50436026 -0.040403362 2
-2.9801295 -2.5778301 0.90970212 4
-1.2068875 -1.043965 -0.02785404 4
-2.9674523 -2.5668643 1.0513231 5
-2.9742577 -2.570935 0.068622865 6
-2.9644194 -2.5597208 0.20526163 6
-2.9479673 -2.5428216 0.34060463 7
-2.9565427 -2.5475199 0.47919029 6
-2.9782805 -2.5626309 0.62229639 4
-2.9747365 -2.5568721 0.76247281 5
-0.58482838 -0.5023219 -0.040403362 2
-2.9747727 -2.5541949 0.9052031 4
-1.1989275 -1.0286947 -0.027574802 5
-2.9649811 -2.5430923 1.0466642 5
-2.9992967 -2.5571179 0.068797387 8
-3.0061023 -2.5602036 0.20693639 6
-2.9682422 -2.5252795 0.34095326 7
-2.9798648 -2.5324793 0.48016527 6
-3.0016794 -2.5474122 0.62354785 4
-2.9980619 -2.5416429 0.76399928 5
-0.58823407 -0.49832943 -0.040403362 2
-3.0069604 -2.5464818 0.90970212 4
-1.2181135 -1.0308443 -0.02785404 4
-2.9954967 -2.5340807 1.0513231 5
-3.011157 -2.5338335 0.068692669 6
-3.0273547 -2.5474634 0.20735508 6
-3.0093026 -2.5322728 0.34409088 7
-2.9952433 -2.5204422 0.48065275 6
-3.0334847 -2.5526216 0.62792808 4
-3.0133665 -2.5356925 0.7655257 5
-0.58682698 -0.49380413 -0.040194016 2
-3.014946 -2.5370219 0.90970212 4
-1.2209876 -1.0274385 -0.02785404 4
-3.002121 -2.5262296 1.0513231 5
-3.0295181 -2.5492837 0.069111533 6
-3.0242984 -2.5448916 0.20714574 6
-3.0093026 -2.5322728 0.34409088 7
-3.0013187 -2.5255547 0.48162767 6
-3.0440648 -2.5615246 0.63011813 4
-3.0103624 -2.5331645 0.76476252 4
-0.59293973 -0.49894792 -0.040612705 2
-3.014946 -2.5370219 0.90970212 4
-1.2301679 -1.0351636 -0.028063469 5
-3.0169024 -2.5386679 1.0564994 5
-3.0120413 -2.5327823 0.068692669 6
-3.0295765 -2.5448208 0.20735508 6
-3.0132763 -2.5275431 0.34409088 7
-3.000515 -2.5141637 0.48065275 6
-3.0401566 -2.5446718 0.62792808 4
-3.0217588 -2.5256858 0.7655257 5
-0.58863282 -0.4916501 -0.040194016 2
-3.0246651 -2.5254266 0.90970212 4
-1.2252805 -1.0223151 -0.02785404 4
-3.0135529 -2.5125813 1.0513231 5
-3.048564 -2.5264766 0.069111533 6
-3.0446317 -2.52053 0.20714574 6
-3.031286 -2.5059159 0.34409088 7
-3.0245519 -2.4976842 0.48162767 6
-3.0689547 -2.5316508 0.63011813 4
-3.0367241 -2.5015016 0.76476252 4
-0.59830397 -0.49250272 -0.040612705 2
-3.0426593 -2.5037179 0.90970212 4
-1.2418318 -1.0211418 -0.028063469 5
-3.0463815 -2.5032172 1.0564994 5
-3.0625937 -2.5031359 0.069041722 5
-3.0727804 -2.5114617 0.20798311 6
-3.0544899 -2.4965124 0.34513673 7
-3.0371547 -2.4823439 0.48162767 6
-3.0681748 -2.5076973 0.62761515 4
-3.0675879 -2.5072176 0.77010518 5
-0.60620528 -0.49546701 -0.041031394 2
-3.059998 -2.5010142 0.91240156 4
-1.2386628 -1.0123906 -0.02792385 5
-3.0663867 -2.5062358 1.0611582 5
-3.0811739 -2.5183218 0.069460578 6
-3.0851519 -2.5215733 0.20882049 6
-3.0544899 -2.4965124 0.34513673 7
-3.0555987 -2.4974186 0.48455253 6
-3.0742929 -2.5126977 0.62886661 4
-3.0706279 -2.5097024 0.77086836 4
-0.60620528 -0.49546701 -0.041031394 2
-3.0750868 -2.5133467 0.91690058 4
-1.2293729 -1.0047977 -0.027714422 5
-3.0648906 -2.5050132 1.0606405 5
-3.0634673 -2.5020669 0.069041722 5
-3.0749707 -2.5087795 0.20798311 6
-3.0579724 -2.4922452 0.34513673 7
-3.0419147 -2.4765089 0.48162767 6
-3.0742929 -2.5001934 0.62761515 4
-3.0754497 -2.4975681 0.77010518 5
-0.60784501 -0.49345401 -0.041031394 2
-3.0691442 -2.4897821 0.91240156 4
-1.242541 -1.0076271 -0.02792385 5
-3.0768576 -2.4933696 1.0611582 5
-3.09868 -2.4967499 0.069460578 6
-3.1039891 -2.4983487 0.20882049 6
-3.0748658 -2.4713728 0.34513673 7
-3.0772762 -2.470659 0.48455253 6
-3.0974045 -2.4841523 0.62886661 4
-3.0950105 -2.4795706 0.77086836 4
-0.6111896 -0.48930529 -0.041031394 2
-3.1008046 -2.4815483 0.91690058 4
-1.2400004 -0.99165273 -0.027714422 5
-3.0922489 -2.4711621 1.0606405 5
-3.1022167 -2.4667315 0.069181338 5
-3.1187596 -2.4798856 0.20882049 6
-3.1095963 -2.4725995 0.3475771 7
-3.1044223 -2.4684854 0.48698995 6
-3.1325209 -2.490828 0.63387251 4
-3.1010041 -2.4657674 0.77010518 4
-0.6159355 -0.48976192 -0.041240737 2
-3.1177368 -2.4790723 0.91960001 4
-1.2427648 -0.98818606 -0.027714422 4
-3.1088622 -2.4720156 1.0642639 5
-3.1178684 -2.479177 0.06953039 5
-3.1406457 -2.4972885 0.21028589 6
-3.122072 -2.4825196 0.34897158 7
-3.1168525 -2.4783692 0.48893982 6
-3.1448905 -2.5006635 0.63637549 4
-0.46160507 -0.36704585 -0.051596198 1
-3.1163709 -2.4779863 0.77392131 4
-0.59717602 -0.47484529 -0.039984677 2
-3.1329896 -2.4912007 0.92409903 4
-1.2740687 -1.0130774 -0.028412517 5
-3.1239831 -2.4840391 1.0694402 5
-3.1030779 -2.4656479 0.069181338 5
-3.120923 -2.4771626 0.20882049 6
-3.1134763 -2.4677122 0.3475771 7
-3.1095853 -2.4619787 0.48698995 6
-3.1394644 -2.4820702 0.63387251 4
-3.109164 -2.4554703 0.77010518 4
-0.61772656 -0.48750094 -0.041240737 2
-3.1272328 -2.467083 0.91960001 4
-1.2468934 -0.98297137 -0.027714422 4
-3.1200483 -2.4578822 1.0642639 5
-3.1363873 -2.4557073 0.06953039 5
-3.161025 -2.4714417 0.21028589 6
-3.1436174 -2.4551797 0.34897158 7
-3.1400721 -2.4488835 0.48893982 6
-3.1696122 -2.4692535 0.63637549 4
-0.46536016 -0.3622731 -0.051596198 1
-3.142576 -2.4446678 0.77392131 4
-0.60227931 -0.46835551 -0.039984677 2
-3.1606207 -2.4560499 0.92409903 4
-1.2856537 -0.99833423 -0.028412517 5
-3.1528163 -2.4473393 1.0694402 5
-3.1661186 -2.4435263 0.069809623 6
-3.1796536 -2.4539723 0.21049525 4
-3.1671693 -2.4443371 0.35001746 7
-3.1555698 -2.435385 0.48942733 6
-3.1839123 -2.4572587 0.63700122 4
-3.1705902 -2.4469774 0.7785008 4
-0.60399193 -0.46614489 -0.039984677 2
-3.1656628 -2.4431744 0.92319918 4
-1.2854443 -0.99207169 -0.028342709 4
-3.1810501 -2.45505 1.0766873 5
-3.1756172 -2.4508569 0.070019051 6
-3.1859782 -2.4588532 0.21091393 4
-3.1797876 -2.4540756 0.35141194 7
-3.1775708 -2.4523647 0.49283966 6
-3.1792204 -2.4536378 0.63606256 4
-3.1830239 -2.4565732 0.78155369 4
-0.62296551 -0.48078823 -0.041240737 2
-3.1810901 -2.4550807 0.92769819 4
-1.2727798 -0.9822976 -0.028063469 4
-3.1669719 -2.4424202 0.069809623 6
-3.1817944 -2.451196 0.21049525 4
-3.1705797 -2.4399121 0.35001746 7
-3.1606631 -2.428771 0.48942733 6
-3.1903338 -2.4489152 0.63700122 4
-3.178262 -2.4370043 0.7785008 4
-0.60561538 -0.46403369 -0.039984677 2
-3.1745968 -2.4315543 0.92319918 4
-1.2894162 -0.98690355 -0.028342709 4
-3.1917317 -2.4411466 1.0766873 5
-3.1930737 -2.4280701 0.070019051 6
-3.2047665 -2.4343143 0.21091393 4
-3.2002349 -2.4273508 0.35141194 7
-3.1992733 -2.4239838 0.49283966 6
-3.2022035 -2.4235659 0.63606256 4
-3.2077284 -2.424226 0.78155369 4
-0.6278832 -0.47434795 -0.041240737 2
-3.2070475 -2.4210744 0.92769819 4
-1.2835035 -0.96824342 -0.028063469 4
-3.2347026 -2.4260368 0.070577532 6
-3.2291639 -2.4218829 0.21154197 6
-3.2196965 -2.4147823 0.35210916 7
-3.2190211 -2.4142756 0.49405837 6
-3.2348723 -2.4261642 0.64044279 4
-0.4144164 -0.31081358 -0.045320988 1
-3.2244444 -2.4183433 0.78346181 4
-0.62314391 -0.46735984 -0.040822048 2
-1.8941728 -1.4206353 0.5466311 1
-1.2894018 -0.96705532 -0.028133281 5
-1.8221198 -1.3665955 0.6102953 3
-3.2283037 -2.4212377 0.070437916 3
-3.2451417 -2.4338663 0.21258868 4
-3.2165091 -2.4123917 0.35176057 7
-3.2253733 -2.41904 0.49503332 6
-3.2522554 -2.4392016 0.64388436 4
-3.2338679 -2.4254107 0.78575146 3
-0.63273078 -0.47455004 -0.041450083 2
-1.8380491 -1.3785424 0.53043461 3
-1.2894018 -0.96705532 -0.028133281 6
-1.7664826 -1.3248674 0.59166032 3
-3.2347026 -2.4260368 0.070577532 6
-3.2291639 -2.4218829 0.21154197 6
-3.2196965 -2.4147823 0.35210916 7
-3.2190211 -2.4142756 0.49405837 6
-3.2348723 -2.4261642 0.64044279 4
-0.4144164 -0.31081358 -0.045320988 1
-3.2244444 -2.4183433 0.78346181 4
-0.62314391 -0.46735984 -0.040822048 2
-1.8941728 -1.4206353 0.5466311 1
-1.2894018 -0.96705532 -0.028133281 5
-1.8221198 -1.3665955 0.6102953 3
-3.2283037 -2.4212377 0.070437916 3
-3.2451417 -2.4338663 0.21258868 4
-3.2165091 -2.4123917 0.35176057 7
-3.2253733 -2.41904 0.49503332 6
-3.2522554 -2.4392016 0.64388436 4
-3.2338679 -2.4254107 0.78575146 3
-0.63273078 -0.47455004 -0.041450083 2
-1.8380491 -1.3785424 0.53043461 3
-1.2894018 -0.96705532 -0.028133281 6
-1.7664826 -1.3248674 0.59166032 3
-1.8375567 -1.3389872 0.039686773 1
-3.2880762 -2.3959491 0.21321672 6
-3.2687876 -2.3818941 0.35385233 7
-3.2680461 -2.3813536 0.49649575 6
-3.287174 -2.3952918 0.64419717 4
-1.8802316 -1.3700836 0.45221734 3
-0.63275689 -0.46107608 -0.041031394 2
-1.8316822 -1.3347067 0.52323622 3
-1.2993804 -0.94683009 -0.028063469 5
-1.7627232 -1.2844578 0.58441341 3
-1.7987691 -1.3107237 0.038849056 3
-3.2913041 -2.3983014 0.21342604 6
-3.2865005 -2.3948009 0.35576975 5
-3.2760675 -2.3871987 0.49771443 6
-3.3222971 -2.4208851 0.65108031 4
-3.2987354 -2.4037163 0.79338378 2
-0.63598531 -0.46342856 -0.041240737 2
-1.8080575 -1.3174919 0.51648766 3
-1.305845 -0.95154071 -0.028203089 5
-1.7299358 -1.2605662 0.57354301 3
-1.8380243 -1.3383454 0.039686773 1
-3.2901664 -2.3930783 0.21321672 6
-3.2721107 -2.3773272 0.35385233 7
-3.2730262 -2.3745043 0.49649575 6
-3.2934332 -2.3866782 0.64419717 4
-1.8845264 -1.3641703 0.45221734 3
-0.63436246 -0.45886454 -0.041031394 2
-1.8367935 -1.3276638 0.52323622 3
-1.3031708 -0.9416064 -0.028063469 5
-1.7683109 -1.2767544 0.58441341 3
-1.8083289 -1.297503 0.038849056 3
-3.3100386 -2.3723776 0.21342604 6
-3.3064473 -2.3671844 0.35576975 5
-3.2975981 -2.3573678 0.49771443 6
-3.3453827 -2.3888817 0.65108031 4
-1.8764228 -1.3384393 0.44801953 2
-0.6408034 -0.45674321 -0.041240737 2
-1.822208 -1.29785 0.51648766 3
-1.3162286 -0.93712485 -0.028203089 5
-1.7441248 -1.24086 0.57354301 3
-1.8250567 -1.291256 0.039023582 4
-3.3309908 -2.3567276 0.21384473 6
-3.3407607 -2.3636401 0.3580358 7
-3.3317661 -2.3572762 0.50112677 6
-3.3412609 -2.3639941 0.64826447 4
-3.3303726 -2.3562903 0.79300219 4
-0.64891559 -0.45911783 -0.041659426 2
-1.81355 -1.2831148 0.51288843 3
-1.3222682 -0.9355253 -0.028272899 5
-1.7489445 -1.2374054 0.57406068 3
-2.0013592 -1.4159927 0.0427933 2
-3.3505561 -2.3705704 0.2151008 6
-3.327749 -2.354434 0.35664126 7
-3.3382485 -2.3618627 0.50210178 6
-3.3815756 -2.3925173 0.65608621 4
-3.3415911 -2.3642275 0.79567355 2
-0.63587195 -0.4498893 -0.040822048 2
-1.8230948 -1.2898679 0.51558787 4
-1.3124737 -0.92859548 -0.028063469 5
-1.7457904 -1.2351738 0.57302535 3
-1.8255069 -1.2906193 0.039023582 4
-3.333046 -2.3538201 0.21384473 6
-3.3440576 -2.3589733 0.3580358 7
-3.3366957 -2.3502932 0.50112677 6
-3.3474381 -2.3552389 0.64826447 4
-3.3377583 -2.3458166 0.79300219 4
-0.65051425 -0.4568499 -0.041659426 2
-1.8182404 -1.2764596 0.51288843 3
-1.3260131 -0.93020988 -0.028272899 5
-1.7543269 -1.2297624 0.57406068 3
-2.0114403 -1.4016354 0.0427933 2
-3.3686619 -2.3447704 0.2151008 6
-3.3473566 -2.3264732 0.35664126 7
-3.3591392 -2.3320553 0.50210178 6
-3.4039736 -2.3605411 0.65608621 4
-3.3653524 -2.3302801 0.79567355 2
-0.64047086 -0.4433178 -0.040822048 2
-1.8367239 -1.2703854 0.51558787 4
-1.3226044 -0.91410846 -0.028063469 5
-1.7594782 -1.2155963 0.57302535 3
-3.4694588 -2.3836019 0.073474631 1
-3.4026766 -2.3377209 0.21635687 6
-3.3763163 -2.3196108 0.3583844 7
-3.386857 -2.3268526 0.50453913 6
-3.4093564 -2.3423102 0.65514761 4
-1.8495607 -1.2706928 0.43618938 2
-0.64036828 -0.43994847 -0.040717378 2
-1.8840733 -1.2944038 0.52773523 2
-1.3449304 -0.92399967 -0.028482327 5
-1.7642468 -1.2120801 0.57354301 3
-3.4101236 -2.3428371 0.072218053 4
-3.4257233 -2.3535547 0.21782227 4
-3.3812428 -2.3229954 0.35890734 5
-3.3901293 -2.3291008 0.50502658 6
-3.4223814 -2.3512588 0.65765053 4
-1.8058703 -1.2406765 0.42588571 3
-0.64366066 -0.44221041 -0.040926725 2
-3.4003263 -2.3361063 0.95244282 4
-1.3515233 -0.92852908 -0.028621947 5
-1.7833542 -1.2252073 0.57975465 2
-2.108552 -1.4475429 0.044643257 1
-3.4047151 -2.3347507 0.21635687 6
-3.3795514 -2.3148947 0.3583844 7
-3.3917224 -2.3197544 0.50453913 6
-3.415477 -2.3333762 0.65514761 4
-1.8535435 -1.2648759 0.43618938 2
-0.64190006 -0.43771043 -0.040717378 2
-1.8888048 -1.2874897 0.52773523 2
-1.3486288 -0.91859329 -0.028482327 5
-1.7695185 -1.2043707 0.57354301 3
-3.426801 -2.3183749 0.072218053 4
-3.443696 -2.3271775 0.21782227 4
-3.4005849 -2.2945876 0.35890734 5
-3.4107268 -2.2988319 0.50502658 6
-3.4443896 -2.3188989 0.65765053 4
-1.8183368 -1.2223324 0.42588571 3
-0.64818001 -0.43555909 -0.040926725 2
-3.4250047 -2.2997727 0.95244282 4
-1.3616511 -0.91361243 -0.028621947 5
-1.7969283 -1.2052109 0.57975465 2
-3.4421017 -2.2955964 0.072218053 4
-3.4578478 -2.3060975 0.21782227 4
-3.4311841 -2.2883151 0.36082479 7
-3.4120107 -2.2755282 0.50356412 6
-3.4544747 -2.303848 0.65765053 4
-1.809738 -1.2069451 0.42283276 3
-0.6596663 -0.43994272 -0.041554753 2
-1.969834 -1.3137158 0.5466311 2
-1.354215 -0.90314907 -0.028412517 5
-1.9157968 -1.2776775 0.6170246 6
-3.4520841 -2.3022537 0.072427489 4
-3.4777875 -2.3193958 0.21907835 4
-3.4543898 -2.3037913 0.36326513 7
-3.4516473 -2.3019624 0.5094139 6
-3.4577618 -2.3060403 0.65827632 2
-1.8048381 -1.2036773 0.4216879 3
-0.64969653 -0.4332937 -0.040926725 2
-1.8855284 -1.257491 0.52323622 10
-1.3991337 -0.93310612 -0.029354947 8
-3.4429021 -2.2943954 0.072218053 4
-3.4598584 -2.3030803 0.21782227 4
-3.434375 -2.2835231 0.36082479 7
-3.416769 -2.2683773 0.50356412 6
-3.4604938 -2.2947969 0.65765053 4
-1.8135207 -1.201254 0.42283276 3
-0.66119802 -0.43763736 -0.041554753 2
-1.9746355 -1.3064877 0.5466311 2
-1.3578296 -0.89770567 -0.028412517 5
-1.9213533 -1.2693063 0.6170246 6
-3.4684699 -2.277493 0.072427489 4
-3.495496 -2.2926209 0.21907835 4
-3.4735684 -2.2747715 0.36326513 7
-3.4720006 -2.271148 0.5094139 6
-3.4793415 -2.27335 0.65827632 2
-1.8169301 -1.1853459 0.4216879 3
-0.65412378 -0.42658073 -0.040926725 2
-1.8988093 -1.2373458 0.52323622 10
-1.4093089 -0.91766602 -0.029354947 8
-3.5137167 -2.2739959 0.073055774 4
-3.5262029 -2.2820766 0.22012506 4
-3.4874976 -2.2570274 0.36343944 5
-3.4897237 -2.2584682 0.51038885 6
-3.5091283 -2.2710264 0.66203076 2
-1.8047802 -1.1680119 0.41787171 3
-0.65896231 -0.42646512 -0.041136064 2
-1.3665385 -0.88439202 -0.028412517 5
-1.8488952 -1.1965621 0.5901075 20
-3.5137167 -2.2739959 0.073055774 4
-3.5362637 -2.2885878 0.2207531 4
-3.5008793 -2.2656877 0.36483395 5
-3.5097222 -2.2714107 0.51331371 6
-3.5323453 -2.286052 0.66641092 4
-1.7948912 -1.1616119 0.41558203 2
-0.65896231 -0.42646512 -0.041136064 2
-1.8552424 -1.2006698 0.51018906 31
-1.379969 -0.89308387 -0.028691756 6
-1.8310548 -1.1850162 0.58441341 41
-3.5145102 -2.2727692 0.073055774 4
-3.5281935 -2.2789979 0.22012506 4
-3.4906461 -2.2521551 0.36343944 5
-3.494446 -2.2511547 0.51038885 6
-3.5150616 -2.261832 0.66203076 2
-1.8086437 -1.1620204 0.41787171 3
-0.660447 -0.42416227 -0.041136064 2
-1.3702313 -0.87865978 -0.028412517 5
-1.8540984 -1.1884832 0.5901075 20
-3.5302916 -2.2481778 0.073055774 4
-3.5545242 -2.2601223 0.2207531 4
-3.520128 -2.2356646 0.36483395 5
-3.5301926 -2.2394638 0.51331371 6
-3.5545197 -2.2514188 0.66641092 4
-1.8067573 -1.1430681 0.41558203 2
-0.66346532 -0.41942537 -0.041136064 2
-1.8681258 -1.1805245 0.51018906 31
-1.3898586 -0.87761396 -0.028691756 6
-1.8445835 -1.1638457 0.58441341 41
-3.5658393 -2.2368481 0.073474631 4
-3.5919497 -2.253227 0.2222185 4
-3.5494363 -2.2265584 0.36657706 5
-3.5582974 -2.2321169 0.51575112 6
-3.5743501 -2.2421868 0.66828811 4
-1.7978281 -1.127776 0.41252908 2
-0.66830909 -0.41922972 -0.04134541 2
-1.8588237 -1.1660385 0.50658983 30
-1.3958442 -0.8756119 -0.028761568 6
-1.8247126 -1.1446407 0.5771665 31
-3.5827794 -2.2474744 0.073823676 4
-3.5902579 -2.2521658 0.22211383 4
-3.5899432 -2.2519684 0.37076053 5
-3.568387 -2.2384462 0.51721358 6
-3.6145108 -2.2673795 0.67579699 4
-1.8011541 -1.1298624 0.41329232 2
-0.66492522 -0.41710705 -0.041136064 2
-1.8225057 -1.1432563 0.49669197 24
-1.4178659 -0.88942605 -0.029215328 7
-1.8214397 -1.1425877 0.57613122 31
-3.5658393 -2.2368481 0.073474631 4
-3.5919497 -2.253227 0.2222185 4
-3.5494363 -2.2265584 0.36657706 5
-3.5582974 -2.2321169 0.51575112 6
-3.5743501 -2.2421868 0.66828811 4
-1.7978281 -1.127776 0.41252908 2
-0.66830909 -0.41922972 -0.04134541 2
-1.8588237 -1.1660385 0.50658983 30
-1.3958442 -0.8756119 -0.028761568 6
-1.8247126 -1.1446407 0.5771665 31
-3.5827794 -2.2474744 0.073823676 4
-3.5902579 -2.2521658 0.22211383 4
-3.5899432 -2.2519684 0.37076053 5
-3.568387 -2.2384462 0.51721358 6
-3.6145108 -2.2673795 0.67579699 4
-1.8011541 -1.1298624 0.41329232 2
-0.66492522 -0.41710705 -0.041136064 2
-1.8225057 -1.1432563 0.49669197 24
-1.4178659 -0.88942605 -0.029215328 7
-1.8214397 -1.1425877 0.57613122 31
-3.623678 -2.2040963 0.074033104 4
-3.6329145 -2.2097144 0.22284654 4
-3.6172476 -2.2001851 0.37041187 5
-3.6226559 -2.2034748 0.52062589 6
-3.6724334 -2.2337518 0.68080288 2
-0.50386137 -0.30647287 -0.051596198 1
-1.8366897 -1.1171635 0.41787171 2
-0.67402589 -0.4099752 -0.04134541 2
-1.8181163 -1.1058663 0.4912931 24
-1.4231608 -0.86563528 -0.02907571 7
-1.8304186 -1.1133492 0.57406068 31
-3.6817663 -2.2394285 0.075219877 14
-3.6670423 -2.2304726 0.22493997 12
-3.6359723 -2.2115743 0.37232932 21
-3.6480956 -2.2189484 0.52428192 52
-2.0876839 -1.2698305 0.38701892 6
-1.8199162 -1.1069611 0.41405553 2
-0.67402589 -0.4099752 -0.04134541 2
-1.8097917 -1.1008029 0.48904359 39
-1.4231608 -0.86563528 -0.02907571 8
-1.8122629 -1.102306 0.56836665 40
-3.6244466 -2.2028325 0.074033104 4
-2.0316865 -1.2333431 0.12455959 1
-3.620316 -2.1951327 0.37041187 5
-3.6272626 -2.195883 0.52062589 6
-3.6782684 -2.2241304 0.68080288 2
-0.50476843 -0.30497664 -0.051596198 1
-1.8401901 -1.1113883 0.41787171 2
-0.67545283 -0.40762004 -0.04134541 2
-1.8223491 -1.0988772 0.4912931 24
-1.4266241 -0.85991579 -0.02907571 7
-1.8352591 -1.1053519 0.57406068 31
-3.6980827 -2.2123806 0.075219877 14
-2.0539632 -1.2273251 0.12539697 1
-3.6543717 -2.1810374 0.37232932 21
-3.668083 -2.1857495 0.52428192 52
-2.0997767 -1.2497327 0.38701892 6
-1.8310282 -1.0884821 0.41405553 2
-0.67828208 -0.40289459 -0.04134541 2
-1.8215971 -1.0811553 0.48904359 39
-1.4325926 -0.84993505 -0.02907571 8
-1.8246511 -1.0816764 0.56836665 40
-3.740844 -2.2044063 0.22755675 1
-3.6991098 -2.1798131 0.37564126 5
-3.7163458 -2.18997 0.52964419 78
-2.1188245 -1.2485818 0.38952184 3
-1.8318112 -1.0794505 0.41329232 2
-0.67280132 -0.39646867 -0.040926725 2
-1.8249844 -1.0754277 0.48904359 41
-1.4419991 -0.84974182 -0.029215328 8
-1.825812 -1.0759153 0.56784898 32
-3.7299023 -2.1979585 0.075568922 34
-2.0648634 -1.2167836 0.12560631 2
-2.0684116 -1.2188745 0.21004534 1
-3.7077947 -2.184931 0.52842557 9
-2.0252218 -1.1934236 0.37231407 1
-0.50809115 -0.2994082 -0.051596198 1
-1.835194 -1.0814439 0.41405553 2
-0.67280132 -0.39646867 -0.040926725 2
-1.8216267 -1.073449 0.4881438 41
-1.4385536 -0.8477115 -0.029145518 8
-1.8308051 -1.0788577 0.56940192 26
-2.0865839 -1.2271305 0.12686236 1
-3.7021501 -2.1746452 0.37564126 5
-3.7209253 -2.1821802 0.52964419 78
-2.1220863 -1.2430298 0.38952184 3
-1.8351936 -1.0736898 0.41329232 2
-0.67418122 -0.39411753 -0.040926725 2
-1.8291004 -1.0684123 0.48904359 41
-1.4453988 -0.8439461 -0.029215328 8
-1.8304892 -1.0679386 0.56784898 32
-3.7459145 -2.170557 0.075568922 34
-2.0743566 -1.2005283 0.12560631 2
-2.0785503 -1.2015033 0.21004534 1
-3.7274721 -2.15119 0.52842557 9
-2.0365844 -1.1739279 0.37231407 1
-0.51104462 -0.2943387 -0.051596198 1
-1.8460473 -1.0628111 0.41405553 2
-0.67691618 -0.38940144 -0.040926725 2
-1.833136 -1.0536741 0.4881438 41
-1.4477875 -0.83184272 -0.029145518 8
-1.8429265 -1.0580183 0.56940192 26
-3.755017 -2.142693 0.075464211 3
-2.0695083 -1.1809058 0.12487361 2
-2.0454273 -1.1671646 0.20603617 3
-2.0620739 -1.1766635 0.29151151 6
-2.0571284 -1.1738416 0.37512988 3
-0.51222205 -0.29228488 -0.051596198 1
-1.8535249 -1.0576611 0.41481876 2
-0.67480195 -0.38505644 -0.040717378 2
-1.8228964 -1.0401837 0.48454461 39
-1.4502493 -0.82754332 -0.029145518 7
-1.8440123 -1.0522329 0.56888431 17
-3.7237542 -2.1248538 0.074835919 6
-2.0417531 -1.1650679 0.12319885 4
-2.0488882 -1.1691395 0.20638479 5
-3.6844914 -2.1024497 0.52086961 13
-2.0468345 -1.1679676 0.37325269 3
-1.8535249 -1.0576611 0.41481876 2
-0.69561851 -0.39693481 -0.041973442 2
-1.8161262 -1.0363204 0.48274499 39
-1.4502493 -0.82754332 -0.029145518 8
-2.070538 -1.1790994 0.12487361 2
-2.0470548 -1.1643076 0.20603617 3
-2.0645339 -1.1723419 0.29151151 6
-2.0601947 -1.1684518 0.37512988 3
-0.51303631 -0.29085329 -0.051596198 1
-1.8568386 -1.0518327 0.41481876 2
-0.67614198 -0.38269857 -0.040717378 2
-1.8266966 -1.0334954 0.48454461 39
-1.4535595 -0.821715 -0.029145518 7
-1.8485858 -1.0441768 0.56888431 17
-2.0734649 -1.1635743 0.04150182 3
-2.0506399 -1.1493542 0.12319885 4
-2.0586107 -1.151934 0.20638479 5
-2.1140537 -1.1815045 0.29736122 6
-2.0577514 -1.1486248 0.37325269 3
-1.8641365 -1.0388439 0.41481876 2
-0.69966888 -0.3897509 -0.041973442 2
-1.8270563 -1.0169266 0.48274499 39
-1.4592608 -0.81154722 -0.029145518 8
-2.0646155 -1.1406695 0.12361754 2
-2.0665572 -1.1417423 0.20655911 1
-3.6818535 -2.0341697 0.51648235 55
-2.0852211 -1.1520537 0.37731999 3
-0.45342183 -0.25050884 -0.045320988 1
-1.8799607 -1.0386504 0.41749012 2
-0.69403243 -0.38344264 -0.041554753 2
-1.8336535 -1.0130664 0.48364478 41
-1.4580208 -0.8055349 -0.02907571 7
-1.535375 -0.84827197 0.47001541 2
-3.6984367 -2.0433316 0.073753871 27
-2.1205575 -1.1715766 0.12696704 4
-3.6343503 -2.0079248 0.36326513 21
-3.6557903 -2.0197701 0.51282626 40
-2.0990534 -1.1596959 0.37982294 1
-1.8610578 -1.0282068 0.41329232 2
-0.68703961 -0.37957922 -0.041136064 2
-1.8353592 -1.0140088 0.48409471 34
-1.465022 -0.80940294 -0.029215328 7
-1.5083199 -0.83332437 0.46173319 2
-2.1585665 -1.1915934 0.043037634 1
-2.0656099 -1.1388679 0.12361754 2
-2.0681498 -1.1388553 0.20655911 1
-3.6861057 -2.0264542 0.51648235 55
-2.0882297 -1.1465909 0.37731999 3
-0.45416313 -0.24916239 -0.045320988 1
-1.8832142 -1.0327396 0.41749012 2
-0.69536668 -0.38101763 -0.041554753 2
-1.8375299 -1.0060182 0.48364478 41
-1.4612428 -0.79967552 -0.02907571 7
-1.5390617 -0.8415646 0.47001541 2
-3.7133157 -2.0161657 0.073753871 27
-2.1296935 -1.1548859 0.12696704 4
-3.6510441 -1.9774076 0.36326513 21
-3.6739705 -1.9865086 0.51282626 40
-2.1100886 -1.1394935 0.37982294 1
-1.8713708 -1.009315 0.41329232 2
-0.6909768 -0.37236398 -0.041136064 2
-1.8462241 -0.9940896 0.48409471 34
-1.4738328 -0.79324579 -0.029215328 7
-1.5176765 -0.81615973 0.46173319 2
-2.0574408 -1.0994945 0.12225681 7
-3.6339157 -1.9419613 0.36047614 47
-2.1080716 -1.1265515 0.37857145 1
-0.69227242 -0.36994973 -0.041136064 2
-1.880275 -1.0048172 0.49219295 4
-1.4797075 -0.79075432 -0.029285138 7
-1.5334384 -0.81946808 0.46587428 2
-2.3580081 -1.2601174 0.046667732 1
-2.0010724 -1.0693712 0.1189073 18
-3.6128287 -1.9306924 0.3583844 42
-3.5715847 -1.9086517 0.49722698 3
-2.1202669 -1.1330688 0.3807615 2
-0.67994177 -0.36336029 -0.040403362 2
-1.8699626 -0.99930632 0.48949352 4
-1.4655983 -0.78321439 -0.0290059 7
-1.4857315 -0.79397357 0.45138043 2
-2.0583992 -1.0976987 0.12225681 7
-3.6366234 -1.9368857 0.36047614 47
-2.1110137 -1.1210285 0.37857145 1
-0.69355965 -0.36753082 -0.041136064 2
-1.8841193 -0.99759007 0.49219295 4
-1.4828701 -0.78480774 -0.029285138 7
-1.5369993 -0.81276947 0.46587428 2
-2.3671823 -1.242798 0.046667732 1
-2.0094094 -1.0536215 0.1189073 18
-3.6288767 -1.9003574 0.3583844 42
-2.0899246 -1.0925866 0.2895616 1
-2.1310456 -1.112664 0.3807615 2
-0.68370956 -0.3562201 -0.040403362 2
-1.8806665 -0.97901314 0.48949352 4
-1.4741215 -0.76705217 -0.0290059 7
-1.4946431 -0.77706766 0.45138043 2
-1.4621774 -0.75533301 0.02872666 1
-2.0229058 -1.0449946 0.119326 14
-3.5916388 -1.8553723 0.35367799 31
-2.1058209 -1.087827 0.291024 2
-2.3166492 -1.1967368 0.41298702 3
-0.52396512 -0.27067038 -0.051596198 1
-0.70446807 -0.36391479 -0.041554753 2
-1.8854641 -0.97399485 0.48994344 4
-1.4373044 -0.74248409 -0.028237993 7
-1.5069703 -0.77847213 0.45448625 2
-1.4373044 -0.74248409 0.028237993 6
-2.1896787 -1.1311462 0.21562332 11
-3.5573208 -1.8376441 0.49162099 30
-1.8367132 -0.94881111 0.40184379 1
-0.70091909 -0.36208147 -0.04134541 2
-1.8248659 -0.94269097 0.47419685 5
-1.399995 -0.72321075 -0.027504994 5
-1.4966722 -0.77315229 0.45138043 2
-1.4621774 -0.75533301 0.02872666 1
-2.0229058 -1.0449946 0.119326 14
-3.5916388 -1.8553723 0.35367799 31
-2.1058209 -1.087827 0.291024 2
-2.3166492 -1.1967368 0.41298702 3
-0.52396512 -0.27067038 -0.051596198 1
-0.70446807 -0.36391479 -0.041554753 2
-1.8854641 -0.97399485 0.48994344 4
-1.4373044 -0.74248409 -0.028237993 7
-1.5069703 -0.77847213 0.45448625 2
